ply
format ascii 1.0
element vertex 300
property float x
property float y
property float z
property uint8 red
property uint8 green
property uint8 blue
end_header
-5.339574 20.894398 1.500584 167 119 36
-4.981004 21.072914 1.459461 246 191 126
-5.381786 20.722689 1.336218 255 239 200
-5.007547 20.655752 1.154508 255 235 167
-4.583788 20.282547 -0.139437 227 171 62
-5.023162 20.160536 -0.194441 188 133 11
-4.064774 20.426279 -0.554133 223 166 100
-4.102181 20.314995 -0.884533 180 131 18
-4.382406 20.082102 -1.035688 217 166 83
-5.093565 20.020327 -1.155077 184 133 43
-4.743131 19.977642 -1.306687 211 159 41
-4.657623 20.000721 -1.309553 207 164 25
-4.277474 20.067242 -1.400456 171 105 38
-5.243391 19.888273 -1.620443 181 136 45
-3.937852 20.212076 -1.744648 186 141 39
-5.276535 19.873055 -1.899489 183 132 56
-5.536525 20.028120 -1.975763 185 136 71
-5.162748 19.766369 -2.226665 170 123 14
-2.401067 19.658258 -5.811104 26 41 71
-4.282274 18.647133 -5.582592 159 209 255
-3.292274 18.889330 -5.652481 96 117 165
-3.292274 18.889330 -5.652481 96 117 165
-4.010519 18.632097 -5.581692 61 128 198
-4.402547 18.667244 -5.604497 94 162 236
-3.346680 18.872190 -5.696838 73 104 168
-4.707462 18.484596 -5.622552 19 75 135
-1.431793 19.345398 -7.773356 125 152 169
-3.151088 18.414198 -7.807558 44 84 128
-5.458627 20.937134 1.520771 81 27 0
-5.225333 20.936628 1.521247 166 114 36
-5.225333 20.936628 1.521247 166 114 36
-5.084025 20.939625 1.450446 252 200 137
-4.959347 21.080217 1.429532 141 73 2
-5.410471 20.732700 1.308485 227 194 139
-4.981156 20.810410 1.300699 187 136 54
-5.144037 20.696539 1.281902 227 191 128
-5.054940 20.667162 1.178358 217 185 114
-5.391791 20.542782 1.041643 202 148 61
-5.001944 20.479990 0.966701 242 218 106
-5.308218 20.358391 0.840650 237 203 109
-5.733681 20.431458 0.773108 254 208 144
-5.184535 20.238335 0.401834 240 181 99
-5.259181 20.322865 0.312552 163 118 13
-4.502048 20.390726 0.023414 255 211 137
-4.426131 20.274025 -0.544594 157 96 38
-4.634531 20.126673 -0.593895 205 165 33
-5.143842 20.015253 -1.151122 247 191 120
-4.905759 19.933002 -1.305218 216 176 49
-3.943918 20.252148 -1.580821 122 76 0
-3.927467 20.233147 -1.769192 188 142 35
-5.172196 19.860472 -1.747795 201 147 83
-4.510720 19.813030 -2.365057 222 180 124
-4.655428 19.734480 -2.495024 142 92 18
-4.957401 19.677294 -2.952376 162 119 11
-3.898405 19.993660 -3.494892 88 26 0
-3.355134 18.871569 -5.578391 108 164 228
-2.488682 19.576735 -5.817392 1 7 25
-3.526149 18.784023 -5.588177 129 186 249
-5.538298 18.679552 -5.611653 53 79 125
-4.315161 18.644705 -5.575147 44 112 184
-4.247522 18.663635 -5.580513 43 106 178
-4.426574 18.671051 -5.587645 22 98 175
-4.487087 18.650948 -5.586877 24 99 177
-2.671784 19.208767 -5.773406 0 12 39
-4.572650 18.644184 -5.608095 82 148 224
-3.661168 18.664192 -5.687684 99 125 187
-5.675372 18.612244 -5.735773 44 65 102
-3.660626 18.677441 -5.715627 23 68 139
-5.736041 18.637403 -5.803517 66 81 115
-4.194962 18.307236 -5.746551 77 134 193
-4.848118 18.205339 -5.839372 54 94 133
-0.354664 19.488861 -7.727687 138 161 179
-0.354664 19.488861 -7.727687 138 161 179
-2.626348 18.814541 -7.784086 40 83 122
-5.291887 20.974459 1.581524 255 231 194
-5.617936 21.011698 1.541657 241 214 184
-5.117216 21.085438 1.542976 83 8 0
-5.283511 20.895607 1.469936 195 143 75
-5.260918 20.628321 1.221320 235 196 117
-3.949790 20.319418 -1.359406 122 71 0
-5.126504 19.964237 -1.394574 162 109 0
-5.157643 19.853455 -1.778169 138 95 0
-4.790062 19.768118 -2.405297 145 101 1
-5.424838 19.872984 -2.867590 111 55 0
-4.056616 20.771420 -3.482175 125 80 25
-3.241211 18.954504 -5.573842 100 157 219
-4.095620 18.665510 -5.585632 49 118 191
-3.927746 18.636339 -5.603704 116 165 225
-3.442657 18.793489 -5.676392 59 95 162
-4.290008 18.545050 -5.611334 132 186 248
-4.875032 18.216955 -5.793385 11 20 36
-2.577604 18.869469 -7.749566 114 149 169
-3.709152 18.072838 -7.816331 61 106 164
-5.256576 20.840023 1.414287 169 108 21
-5.233673 20.757248 1.317614 255 234 175
-5.033279 20.814251 1.322921 255 233 178
-5.053879 20.148899 -0.254847 211 163 19
-4.455927 20.289949 -0.297700 201 140 7
-4.350319 20.112047 -1.060723 157 107 4
-4.425336 20.077612 -1.063826 151 101 0
-5.132025 19.993570 -1.216554 156 105 3
-5.131640 19.973660 -1.269098 169 116 0
-4.340449 19.903280 -1.820363 147 97 1
-4.196536 19.897417 -2.316512 123 80 0
-4.492815 19.784542 -2.482216 245 204 135
-3.895484 19.859514 -4.459958 130 89 41
-4.016342 19.733389 -4.507945 152 109 45
-3.662339 18.838778 -5.583321 53 125 203
-5.606103 18.698074 -5.616897 0 31 87
-4.007679 18.624342 -5.607244 104 164 226
-5.707818 18.650333 -5.712914 13 54 115
-4.852751 17.943384 -7.799957 61 96 141
-4.832711 20.613840 1.025225 187 107 0
-5.226671 20.505167 0.997622 255 238 144
-4.622346 20.295448 0.053151 143 84 0
-4.473541 20.347982 -0.016852 217 172 40
-5.044713 20.191116 -0.035852 159 99 0
-4.339808 20.361954 -0.297831 108 17 0
-4.979789 19.843975 -1.925371 255 223 136
-5.039231 19.821255 -1.943161 255 235 153
-5.057201 19.763800 -2.310672 255 224 132
-5.050879 19.752743 -2.416719 136 85 0
-4.533692 19.753674 -2.515986 143 95 2
-4.256692 19.794521 -2.748305 117 71 0
-4.296629 19.775389 -2.860611 251 207 124
-4.215868 19.771309 -3.055691 112 66 0
-4.927970 19.615759 -3.212031 153 98 0
-4.163350 19.748241 -3.514626 236 189 89
-4.850235 19.475134 -3.821851 146 87 0
-4.984155 19.465122 -4.207290 126 87 5
-4.810724 19.415966 -4.249254 202 169 94
-4.015205 19.730955 -4.466546 105 58 0
-4.336903 19.515274 -4.441171 148 118 52
-3.429296 18.841394 -5.583863 107 167 235
-4.084963 18.595772 -5.605947 120 176 237
-5.623067 18.629459 -5.719989 1 20 55
-3.724788 18.084694 -7.324698 9 61 131
-5.386707 20.968281 1.544865 249 206 146
-4.828119 20.665312 1.115026 204 125 1
-4.490007 20.402330 0.191568 147 52 9
-4.405011 20.318096 -0.322460 255 231 104
-4.286672 20.351171 -0.426212 102 19 0
-4.606593 20.120174 -0.718234 253 218 123
-4.606593 20.120174 -0.718234 253 218 123
-5.158101 20.080942 -0.945105 249 216 128
-4.554610 20.070650 -0.965254 232 192 98
-4.959280 20.043106 -1.214233 255 223 130
-4.508731 20.032610 -1.302038 239 195 104
-4.547276 20.031729 -1.367364 97 12 0
-4.503107 19.983772 -1.506508 89 11 0
-4.503107 19.983772 -1.506508 89 11 0
-4.458869 19.992102 -1.556105 236 199 117
-5.128045 19.878029 -1.722363 94 34 0
-5.078504 19.823864 -2.023416 232 193 88
-4.440814 19.868633 -2.264250 70 4 0
-4.345009 19.825270 -2.458692 207 156 57
-4.743288 19.720665 -2.534521 139 90 0
-4.439615 19.815739 -2.601835 72 6 0
-4.527413 19.708830 -2.674776 132 70 0
-4.216866 19.787580 -2.896485 120 61 0
-4.380538 19.744965 -3.231565 67 6 0
-4.055562 19.709032 -3.878024 246 212 128
-4.873921 19.450495 -4.006597 134 90 0
-4.745704 19.438108 -4.160420 216 175 95
-4.572506 19.499630 -4.339432 176 136 64
-4.058037 19.700747 -4.411013 141 97 36
-4.763908 18.121016 -6.324541 25 67 125
-5.089541 20.600519 1.103713 254 232 141
-4.678036 20.431469 0.615371 255 240 144
-5.122725 20.288513 0.527445 254 217 93
-4.903087 20.320868 0.477435 251 221 100
-4.645078 20.424469 0.456821 255 235 123
-4.993981 20.259018 0.187136 104 30 3
-5.310927 20.264847 0.055204 255 222 108
-4.477408 20.366291 0.063781 156 65 9
-4.750553 20.245903 0.020207 133 66 0
-4.675019 20.298721 -0.080134 122 36 1
-5.122695 20.160864 -0.281147 253 221 110
-4.710802 20.171082 -0.403919 115 27 0
-4.710802 20.171082 -0.403919 115 27 0
-4.647914 20.187162 -0.455763 251 212 99
-4.749269 20.157394 -0.482867 93 10 0
-4.637173 20.144047 -0.613804 244 207 93
-5.055394 20.072443 -0.765688 255 233 131
-4.806926 20.009977 -0.865185 126 75 0
-4.569313 20.131107 -0.872416 231 195 71
-4.859690 20.065435 -1.043585 145 80 2
-4.429989 20.111029 -1.044958 185 131 38
-4.330064 20.119638 -1.040486 179 129 30
-4.674547 20.041946 -1.208456 254 231 133
-4.744580 20.003544 -1.269897 121 45 0
-4.744580 20.003544 -1.269897 121 45 0
-4.389143 20.078552 -1.284560 137 70 19
-4.643752 20.000034 -1.337138 255 230 112
-4.643752 20.000034 -1.337138 255 230 112
-4.352424 20.021210 -1.520678 157 96 25
-4.352424 20.021210 -1.520678 157 96 25
-4.476108 19.925617 -1.767304 86 17 0
-4.476108 19.925617 -1.767304 86 17 0
-4.564870 19.877489 -1.943150 253 222 114
-4.858993 19.852282 -1.965627 251 220 110
-4.516478 19.880936 -2.018691 62 0 0
-4.275152 19.890808 -2.161373 134 68 4
-4.496032 19.861719 -2.185722 73 2 0
-5.107833 19.801149 -2.248028 84 21 0
-5.107833 19.801149 -2.248028 84 21 0
-4.486567 19.840351 -2.332438 64 7 0
-4.243246 19.873732 -2.431146 125 64 7
-4.387226 19.835144 -2.531345 65 4 1
-4.419528 19.793215 -2.773678 64 8 0
-4.363176 19.799858 -2.832252 55 0 0
-4.416173 19.769104 -2.915945 64 6 0
-4.416173 19.769104 -2.915945 64 6 0
-4.351950 19.777283 -2.989006 65 9 0
-4.399463 19.756149 -3.068473 70 10 0
-4.328264 19.762989 -3.140389 66 6 4
-4.814555 19.668936 -3.147588 70 4 0
-4.743341 19.662821 -3.245637 57 2 0
-4.296638 19.744816 -3.328058 62 9 0
-4.243828 19.742586 -3.485152 71 9 3
-4.455763 19.464813 -4.447392 173 140 65
-4.003916 19.825974 -4.603772 65 22 0
-4.883730 18.186085 -5.939562 93 121 140
-4.387416 17.131596 -7.810660 55 94 162
-4.698788 17.220028 -7.866724 60 100 169
-5.279561 20.569159 1.187876 254 226 140
-4.983510 20.388176 0.783846 255 231 129
-4.682539 20.477520 0.701525 185 87 0
-4.548655 20.448809 0.407708 133 41 11
-4.548655 20.448809 0.407708 133 41 11
-5.209173 20.242455 0.274153 131 58 4
-4.869981 20.272049 0.206596 251 217 92
-4.922122 20.278975 0.096872 107 24 3
-4.922122 20.278975 0.096872 107 24 3
-4.284822 20.405687 -0.196512 229 190 68
-4.694728 20.120527 -0.674992 94 22 2
-4.651436 20.079420 -0.941639 83 13 3
-4.628754 20.075901 -1.133919 76 12 1
-4.584077 20.055235 -1.263405 70 9 1
-4.519793 19.914921 -1.867585 74 12 1
-4.948539 19.805363 -2.208479 54 8 4
-4.907913 19.749378 -2.489236 52 9 0
-4.165035 19.897152 -2.575204 123 73 18
-4.884871 19.746986 -2.640838 38 0 0
-4.430503 19.726986 -3.348267 252 220 114
-4.039418 19.835104 -3.504085 132 75 21
-4.976825 19.582392 -3.495986 113 57 9
-4.194475 19.714733 -3.645797 88 24 1
-4.257064 19.692699 -3.739705 82 17 1
-4.163089 19.686268 -3.830290 75 13 0
-4.237782 19.675755 -3.933663 87 26 2
-4.620270 19.466734 -4.256740 60 8 0
-2.794947 19.295090 -5.805299 67 126 188
-3.605422 18.369793 -5.790593 25 60 118
-5.788975 18.308960 -6.606818 98 131 150
-5.305138 20.958466 1.537168 252 202 117
-4.981600 20.269855 0.270592 108 35 11
-4.421771 20.356861 -0.059149 255 231 122
-4.738545 19.919428 -1.616170 133 74 11
-4.457757 19.911940 -1.929586 67 13 0
-4.457757 19.911940 -1.929586 67 13 0
-4.745259 19.627274 -3.436316 48 3 0
-4.691547 19.560213 -3.737895 61 2 0
-4.690042 19.501818 -3.915163 67 7 0
-4.676721 19.441521 -4.080695 57 2 0
-4.115054 19.656397 -4.202443 63 19 0
-4.115054 19.656397 -4.202443 63 19 0
-4.724515 19.505117 -4.347859 55 9 0
-4.397412 20.356440 -5.361827 56 106 166
-4.607131 20.372709 -5.555860 39 57 86
-4.607131 20.372709 -5.555860 39 57 86
-3.342688 18.810860 -5.641948 0 25 83
-3.573487 18.753132 -5.666446 13 44 117
-3.947735 18.579849 -5.675864 23 52 117
-3.947735 18.579849 -5.675864 23 52 117
-3.789350 18.320883 -5.804513 18 46 99
-4.768703 18.192841 -5.879221 25 64 123
-4.149637 19.625305 -4.033643 74 20 1
-4.149637 19.625305 -4.033643 74 20 1
-4.175891 19.651276 -4.321836 58 12 0
-8.335842 19.995844 -8.130088 26 74 149
-3.966570 18.012579 -7.631335 42 112 180
-5.182570 21.073271 1.646889 17 17 17
-4.682313 19.784792 -2.382591 167 118 41
-4.570642 19.715816 -3.068768 182 138 39
-5.021631 18.343582 -5.740283 22 40 73
-5.021631 18.343582 -5.740283 22 40 73
-4.925372 18.186073 -6.078637 103 128 147
-4.829222 17.931490 -7.664238 111 154 178
-4.467153 19.646776 -3.599126 221 175 101
-4.467153 19.646776 -3.599126 221 175 101
-4.388167 19.573364 -4.155732 195 152 104
-5.396910 16.480946 -7.858463 225 222 219
-4.036718 20.556883 -5.175755 14 14 14
-4.322257 20.404564 -5.644247 10 16 27
-4.813039 20.278740 -5.658354 11 16 31
-4.906653 17.383734 -7.814333 183 207 226
-2.618114 18.329130 -7.833602 223 220 226
-4.179021 17.316494 -7.761093 187 205 224
-5.700432 20.824265 -0.273739 161 93 25
